ply
format ascii 1.0
element vertex 1673
property float x
property float y
property float z
property uchar red
property uchar green
property uchar blue
end_header
-0.881 -0.387 2.869 73 45 23
-0.869 -0.384 2.845 74 45 25
-0.864 -0.384 2.845 76 44 28
-0.859 -0.384 2.845 76 44 32
-0.848 -0.381 2.822 76 45 29
-0.843 -0.381 2.822 76 45 26
-0.838 -0.381 2.822 76 47 27
-0.833 -0.381 2.822 77 46 28
-0.829 -0.381 2.822 78 47 22
-0.831 -0.384 2.845 78 48 17
-0.826 -0.384 2.845 79 49 24
-0.821 -0.384 2.845 77 48 32
-0.823 -0.387 2.869 76 46 35
-0.818 -0.387 2.869 78 46 38
-0.814 -0.387 2.869 81 46 31
-0.809 -0.387 2.869 80 47 24
-0.804 -0.387 2.869 80 49 29
-0.799 -0.387 2.869 81 48 34
-0.794 -0.387 2.869 83 47 34
-0.789 -0.387 2.869 83 49 35
-0.785 -0.387 2.869 83 53 37
-0.773 -0.384 2.845 83 51 39
-0.768 -0.384 2.845 83 52 42
-0.764 -0.384 2.845 84 52 45
-0.759 -0.384 2.845 86 51 45
-0.754 -0.384 2.845 85 51 45
-0.749 -0.384 2.845 85 53 42
-0.745 -0.384 2.845 85 51 40
-0.740 -0.384 2.845 85 52 40
-0.735 -0.384 2.845 85 52 41
-0.730 -0.384 2.845 86 54 37
-0.731 -0.387 2.869 86 54 34
-0.727 -0.387 2.869 87 54 39
-0.722 -0.387 2.869 88 54 44
-0.717 -0.387 2.869 89 54 41
-0.712 -0.387 2.869 89 56 39
-0.707 -0.387 2.869 90 58 40
-0.697 -0.384 2.845 90 56 41
-0.692 -0.384 2.845 91 57 41
-0.687 -0.384 2.845 91 56 42
-0.682 -0.384 2.845 91 57 41
-0.677 -0.384 2.845 91 57 41
-0.673 -0.384 2.845 91 58 42
-0.668 -0.384 2.845 91 59 43
-0.658 -0.381 2.822 92 61 44
-0.653 -0.381 2.822 91 60 45
-0.648 -0.381 2.822 91 59 47
-0.644 -0.381 2.822 92 61 50
-0.639 -0.381 2.822 94 64 48
-0.634 -0.381 2.822 94 63 47
-0.629 -0.381 2.822 95 64 48
-0.625 -0.381 2.822 96 62 49
-0.625 -0.384 2.845 97 63 51
-0.620 -0.384 2.845 97 63 54
-0.615 -0.384 2.845 97 61 53
-0.610 -0.384 2.845 97 62 53
-0.601 -0.381 2.822 98 63 52
-0.596 -0.381 2.822 99 63 51
-0.591 -0.381 2.822 100 65 52
-0.587 -0.381 2.822 100 63 54
-0.582 -0.381 2.822 100 61 55
-0.577 -0.381 2.822 100 64 56
-0.572 -0.381 2.822 101 65 53
-0.568 -0.381 2.822 101 66 51
-0.563 -0.381 2.822 102 68 51
-0.558 -0.381 2.822 102 70 51
-0.553 -0.381 2.822 103 71 53
-0.553 -0.384 2.845 104 69 55
-0.548 -0.384 2.845 105 69 55
-0.539 -0.381 2.822 105 69 55
-0.534 -0.381 2.822 106 72 53
-0.530 -0.381 2.822 106 70 51
-0.525 -0.381 2.822 107 73 45
-0.520 -0.381 2.822 106 72 39
-0.511 -0.377 2.799 105 74 46
-0.506 -0.377 2.799 107 73 53
-0.502 -0.377 2.799 109 76 52
-0.497 -0.377 2.799 109 75 51
-0.492 -0.377 2.799 110 77 51
-0.492 -0.381 2.822 111 76 51
-0.487 -0.381 2.822 112 77 55
-0.482 -0.381 2.822 111 76 60
-0.477 -0.381 2.822 111 76 62
-0.473 -0.381 2.822 112 76 65
-0.468 -0.381 2.822 113 78 65
-0.463 -0.381 2.822 113 78 65
-0.458 -0.381 2.822 113 78 64
-0.450 -0.377 2.799 113 78 64
-0.445 -0.377 2.799 113 79 64
-0.444 -0.381 2.822 114 79 65
-0.439 -0.381 2.822 115 80 66
-0.438 -0.384 2.845 115 81 67
-0.430 -0.381 2.822 116 82 66
-0.425 -0.381 2.822 118 81 65
-0.420 -0.381 2.822 120 82 71
-0.416 -0.381 2.822 119 82 77
-0.411 -0.381 2.822 118 83 70
-0.406 -0.381 2.822 118 83 63
-0.401 -0.381 2.822 118 85 64
-0.397 -0.381 2.822 119 84 66
-0.392 -0.381 2.822 120 87 64
-0.387 -0.381 2.822 120 86 62
-0.382 -0.381 2.822 121 87 64
-0.378 -0.381 2.822 121 86 67
-0.373 -0.381 2.822 121 87 64
-0.365 -0.377 2.799 121 86 61
-0.363 -0.381 2.822 122 88 59
-0.356 -0.377 2.799 120 86 58
-0.351 -0.377 2.799 119 86 65
-0.346 -0.377 2.799 121 86 73
-0.344 -0.381 2.822 123 87 73
-0.119 -0.189 1.402 37 10 2
-0.116 -0.188 1.396 35 9 2
-0.114 -0.188 1.396 34 9 2
-0.112 -0.188 1.396 33 7 2
-0.109 -0.187 1.390 33 8 2
-0.106 -0.187 1.390 32 6 2
-0.104 -0.187 1.385 32 7 1
-0.101 -0.187 1.385 33 6 1
-0.099 -0.187 1.385 34 7 2
-0.096 -0.186 1.379 32 5 3
-0.094 -0.186 1.379 31 4 3
-0.091 -0.185 1.374 41 5 4
-0.089 -0.185 1.374 51 9 7
-0.087 -0.185 1.374 63 14 11
-0.084 -0.185 1.374 75 22 7
-0.082 -0.185 1.374 81 37 3
-0.079 -0.184 1.368 88 51 2
-0.077 -0.184 1.368 80 30 1
-0.075 -0.184 1.368 72 11 1
-0.073 -0.184 1.368 53 6 1
-0.070 -0.184 1.368 34 5 1
-0.068 -0.184 1.368 42 8 1
-0.066 -0.184 1.368 51 14 1
-0.063 -0.184 1.368 46 8 2
-0.061 -0.184 1.368 41 6 1
-0.059 -0.184 1.368 40 7 1
-0.056 -0.184 1.368 40 8 2
-0.054 -0.184 1.368 41 7 3
-0.052 -0.184 1.368 43 9 2
-0.049 -0.184 1.368 47 11 2
-0.047 -0.184 1.368 51 16 6
-0.045 -0.184 1.368 58 20 10
-0.043 -0.185 1.374 65 30 9
-0.040 -0.184 1.368 76 37 9
-0.038 -0.185 1.374 87 46 26
-0.036 -0.185 1.374 87 50 44
-0.034 -0.185 1.374 88 62 25
-0.031 -0.185 1.374 65 31 6
-0.029 -0.185 1.374 43 17 3
-0.027 -0.186 1.379 53 15 1
-0.024 -0.186 1.379 64 17 3
-0.022 -0.185 1.374 67 20 5
-0.020 -0.186 1.379 71 21 4
-0.017 -0.186 1.379 65 17 3
-0.015 -0.186 1.379 60 14 2
-0.013 -0.187 1.385 47 9 1
-0.010 -0.187 1.385 35 4 1
-0.008 -0.187 1.390 28 3 1
-0.006 -0.188 1.396 22 3 2
-0.004 -0.190 1.407 25 4 3
-0.001 -0.191 1.413 29 5 6
0.001 -0.193 1.431 30 6 9
0.004 -0.194 1.437 31 10 13
0.006 -0.194 1.437 50 20 17
0.008 -0.195 1.443 70 26 19
0.011 -0.195 1.449 96 68 21
0.013 -0.195 1.449 122 84 36
0.016 -0.196 1.455 121 81 51
0.018 -0.195 1.449 120 81 55
0.100 -0.374 2.777 120 80 58
0.105 -0.374 2.777 119 80 57
0.110 -0.374 2.777 118 81 53
0.114 -0.374 2.777 117 80 49
0.119 -0.374 2.777 116 80 56
0.124 -0.374 2.777 113 80 63
0.129 -0.374 2.777 111 79 69
0.133 -0.374 2.777 105 77 76
0.138 -0.374 2.777 100 76 73
0.143 -0.374 2.777 96 68 71
0.147 -0.374 2.777 92 61 69
0.152 -0.374 2.777 91 60 68
0.157 -0.374 2.777 91 59 61
0.161 -0.374 2.777 88 60 55
0.166 -0.374 2.777 85 63 53
0.171 -0.374 2.777 81 62 52
0.175 -0.374 2.777 77 61 53
0.180 -0.374 2.777 79 60 55
0.185 -0.374 2.777 81 62 55
0.189 -0.374 2.777 80 59 55
0.194 -0.374 2.777 80 59 54
0.197 -0.371 2.754 79 58 53
0.203 -0.374 2.777 79 59 51
0.208 -0.374 2.777 77 57 50
0.213 -0.374 2.777 76 55 48
0.217 -0.374 2.777 76 54 47
0.220 -0.371 2.754 76 53 48
0.225 -0.371 2.754 77 50 49
0.229 -0.371 2.754 79 49 59
0.234 -0.371 2.754 80 51 69
0.239 -0.371 2.754 81 51 62
0.243 -0.371 2.754 106 70 55
0.250 -0.374 2.777 131 83 49
0.255 -0.374 2.777 132 78 43
0.259 -0.374 2.777 133 68 41
0.264 -0.374 2.777 131 50 39
0.269 -0.374 2.777 130 40 31
0.276 -0.377 2.799 128 44 23
0.410 -0.371 2.754 122 86 58
0.412 -0.369 2.733 122 89 53
0.416 -0.369 2.733 113 76 49
0.417 -0.366 2.711 104 61 48
0.422 -0.366 2.711 95 57 47
0.427 -0.366 2.711 86 54 41
0.431 -0.366 2.711 86 55 36
0.436 -0.366 2.711 87 56 31
0.440 -0.366 2.711 87 55 26
0.441 -0.363 2.690 88 52 36
0.446 -0.363 2.690 85 53 46
0.450 -0.363 2.690 82 55 39
0.455 -0.363 2.690 83 52 33
0.459 -0.363 2.690 85 53 32
0.464 -0.363 2.690 85 51 31
0.469 -0.363 2.690 86 49 29
0.473 -0.363 2.690 85 49 28
0.478 -0.363 2.690 85 49 28
0.482 -0.363 2.690 85 50 28
0.487 -0.363 2.690 86 51 27
0.491 -0.363 2.690 84 49 26
0.496 -0.363 2.690 82 48 25
0.500 -0.363 2.690 82 48 25
0.505 -0.363 2.690 82 50 33
0.505 -0.360 2.669 81 50 41
0.510 -0.360 2.669 80 50 37
0.518 -0.363 2.690 81 49 34
0.523 -0.363 2.690 82 48 34
0.527 -0.363 2.690 80 49 34
0.532 -0.363 2.690 79 50 29
0.536 -0.363 2.690 78 49 24
0.541 -0.363 2.690 78 49 24
0.546 -0.363 2.690 77 49 24
0.554 -0.366 2.711 77 49 23
0.555 -0.363 2.690 78 47 23
0.559 -0.363 2.690 79 48 26
0.564 -0.363 2.690 78 48 30
0.568 -0.363 2.690 77 49 29
0.573 -0.363 2.690 74 48 28
0.577 -0.363 2.690 72 45 33
0.582 -0.363 2.690 74 45 39
0.586 -0.363 2.690 76 46 28
0.591 -0.363 2.690 77 44 17
0.595 -0.363 2.690 79 44 29
0.600 -0.363 2.690 77 45 42
0.604 -0.363 2.690 76 46 36
0.609 -0.363 2.690 74 45 31
0.613 -0.363 2.690 73 45 27
0.618 -0.363 2.690 74 44 24
0.622 -0.363 2.690 76 44 23
0.627 -0.363 2.690 75 43 22
0.632 -0.363 2.690 74 43 27
0.636 -0.363 2.690 71 45 33
0.641 -0.363 2.690 68 47 29
0.645 -0.363 2.690 72 45 25
0.650 -0.363 2.690 77 46 23
0.654 -0.363 2.690 74 43 21
0.659 -0.363 2.690 71 43 17
0.663 -0.363 2.690 72 43 14
0.668 -0.363 2.690 73 44 14
0.672 -0.363 2.690 73 42 15
0.677 -0.363 2.690 74 41 14
0.681 -0.363 2.690 72 42 14
0.686 -0.363 2.690 71 43 16
0.685 -0.360 2.669 70 41 19
0.695 -0.363 2.690 70 41 20
0.694 -0.360 2.669 71 41 21
0.698 -0.360 2.669 72 41 23
0.703 -0.360 2.669 71 40 25
0.702 -0.357 2.649 71 39 23
0.707 -0.357 2.649 71 39 22
0.706 -0.355 2.629 71 39 27
0.710 -0.355 2.629 69 38 33
0.715 -0.355 2.629 67 40 28
-1.172 -0.273 2.051 14 7 26
-1.175 -0.275 2.063 14 7 23
-1.179 -0.276 2.076 24 10 20
-1.182 -0.278 2.088 35 14 15
-1.186 -0.280 2.101 49 17 10
-1.183 -0.280 2.101 64 18 5
-1.179 -0.280 2.101 62 11 1
-1.165 -0.278 2.088 55 3 1
-1.253 -0.300 2.252 51 2 1
-1.249 -0.300 2.252 53 2 1
-1.245 -0.300 2.252 55 2 3
-1.241 -0.300 2.252 64 3 6
-1.237 -0.300 2.252 74 2 4
-1.234 -0.300 2.252 58 1 2
-1.230 -0.300 2.252 42 1 1
-1.234 -0.302 2.266 31 2 1
-1.230 -0.302 2.266 21 3 4
-1.234 -0.304 2.281 33 6 7
-1.239 -0.306 2.297 46 9 8
-1.244 -0.312 2.343 29 5 1
-1.249 -0.314 2.359 26 7 1
-1.245 -0.314 2.359 22 7 1
-1.241 -0.314 2.359 18 7 1
-1.254 -0.319 2.392 23 7 2
-1.250 -0.319 2.392 28 8 3
-1.246 -0.319 2.392 31 9 5
-1.242 -0.319 2.392 34 8 4
-1.255 -0.323 2.426 31 9 3
-1.269 -0.328 2.460 29 8 3
-1.274 -0.330 2.478 28 8 4
-1.270 -0.330 2.478 28 7 4
-1.284 -0.335 2.514 31 7 4
-1.280 -0.335 2.514 34 7 5
-1.285 -0.337 2.532 34 8 6
-1.290 -0.340 2.551 34 7 4
-1.305 -0.345 2.589 34 7 2
-1.301 -0.345 2.589 35 7 3
-1.306 -0.347 2.609 34 7 4
-1.312 -0.350 2.629 34 6 3
-1.307 -0.350 2.629 32 5 2
-1.303 -0.350 2.629 31 6 4
-1.299 -0.350 2.629 37 7 7
-1.304 -0.353 2.649 44 10 11
-1.300 -0.353 2.649 51 12 16
-1.305 -0.355 2.669 59 31 17
-1.300 -0.355 2.669 82 67 19
-1.306 -0.358 2.690 106 64 33
-1.312 -0.361 2.711 101 63 47
-1.318 -0.364 2.733 96 62 40
-1.313 -0.364 2.733 95 65 34
-1.309 -0.364 2.733 94 64 36
-1.314 -0.367 2.754 95 66 38
-1.309 -0.367 2.754 97 65 40
-1.305 -0.367 2.754 98 68 42
-1.311 -0.370 2.777 100 65 45
-1.306 -0.370 2.777 98 67 49
-1.302 -0.370 2.777 96 65 46
-1.297 -0.370 2.777 97 65 43
-1.292 -0.370 2.777 98 62 47
-1.288 -0.370 2.777 99 60 51
-1.283 -0.370 2.777 100 61 48
-1.278 -0.370 2.777 99 60 45
-1.274 -0.370 2.777 99 62 42
-1.269 -0.370 2.777 98 63 39
-1.264 -0.370 2.777 97 63 48
-1.259 -0.370 2.777 96 64 57
-1.255 -0.370 2.777 95 64 52
-1.250 -0.370 2.777 96 64 48
-1.245 -0.370 2.777 98 62 46
-1.241 -0.370 2.777 101 63 44
-1.236 -0.370 2.777 105 63 39
-1.241 -0.373 2.799 101 64 35
-1.236 -0.373 2.799 98 61 37
-1.232 -0.373 2.799 98 60 39
-1.237 -0.376 2.822 98 60 38
-1.242 -0.379 2.845 97 60 37
-1.238 -0.379 2.845 96 61 39
-1.243 -0.382 2.869 95 65 42
-1.238 -0.382 2.869 95 62 38
-1.234 -0.382 2.869 96 62 34
-1.229 -0.382 2.869 97 61 36
-1.224 -0.382 2.869 99 60 38
-1.229 -0.385 2.893 102 63 29
-1.224 -0.385 2.893 91 64 21
-1.220 -0.385 2.893 80 54 26
-1.215 -0.385 2.893 70 30 31
-1.210 -0.385 2.893 60 27 22
-1.205 -0.385 2.893 57 29 14
-1.200 -0.385 2.893 55 31 15
-1.195 -0.385 2.893 56 32 16
-1.190 -0.385 2.893 58 30 17
-1.186 -0.385 2.893 58 30 18
-1.181 -0.385 2.893 58 30 17
-1.176 -0.385 2.893 58 33 17
-1.171 -0.385 2.893 58 31 14
-1.166 -0.385 2.893 52 29 11
-1.161 -0.385 2.893 47 30 16
-1.156 -0.385 2.893 52 32 21
-1.151 -0.385 2.893 58 30 18
-1.147 -0.385 2.893 58 30 16
-1.132 -0.382 2.869 58 31 15
-1.127 -0.382 2.869 56 32 14
-1.123 -0.382 2.869 54 32 14
-1.127 -0.385 2.893 53 33 14
-1.122 -0.385 2.893 53 32 16
-1.117 -0.385 2.893 57 31 18
-1.112 -0.385 2.893 62 29 15
-1.108 -0.385 2.893 60 28 12
-1.103 -0.385 2.893 58 31 15
-1.098 -0.385 2.893 59 32 18
-1.093 -0.385 2.893 61 28 14
-1.088 -0.385 2.893 60 27 10
-1.083 -0.385 2.893 60 28 15
-1.078 -0.385 2.893 59 31 20
-1.065 -0.382 2.869 59 31 20
-1.069 -0.385 2.893 59 32 21
-1.064 -0.385 2.893 59 31 21
-1.059 -0.385 2.893 59 33 22
-1.054 -0.385 2.893 59 33 23
-1.049 -0.385 2.893 59 34 24
-1.044 -0.385 2.893 60 33 22
-1.039 -0.385 2.893 60 37 21
-1.035 -0.385 2.893 61 34 19
-1.030 -0.385 2.893 62 31 18
-1.025 -0.385 2.893 63 31 20
-1.020 -0.385 2.893 64 30 22
-1.007 -0.382 2.869 65 32 25
-1.010 -0.385 2.893 64 33 29
-0.997 -0.382 2.869 64 33 23
-0.992 -0.382 2.869 64 33 18
-0.987 -0.382 2.869 65 34 20
-0.983 -0.382 2.869 66 32 23
-0.978 -0.382 2.869 68 33 19
-0.973 -0.382 2.869 67 34 16
-0.968 -0.382 2.869 67 37 20
-0.963 -0.382 2.869 69 37 25
-0.958 -0.382 2.869 71 36 22
-0.954 -0.382 2.869 72 35 20
-0.949 -0.382 2.869 73 37 19
-0.944 -0.382 2.869 70 42 18
-0.939 -0.382 2.869 68 43 21
-0.934 -0.382 2.869 70 45 24
-0.929 -0.382 2.869 72 43 26
-0.925 -0.382 2.869 73 42 28
-0.920 -0.382 2.869 74 41 28
-0.915 -0.382 2.869 73 42 28
-0.910 -0.382 2.869 72 42 28
-0.905 -0.382 2.869 72 42 29
-0.900 -0.382 2.869 72 44 25
-0.896 -0.382 2.869 72 45 22
-0.891 -0.382 2.869 73 44 23
-0.886 -0.382 2.869 73 45 24
-0.881 -0.382 2.869 74 45 25
-0.869 -0.379 2.845 74 46 26
-0.864 -0.379 2.845 75 45 29
-0.859 -0.379 2.845 76 47 33
-0.848 -0.376 2.822 78 45 30
-0.843 -0.376 2.822 78 45 27
-0.838 -0.376 2.822 78 46 27
-0.840 -0.379 2.845 78 47 28
-0.835 -0.379 2.845 78 47 26
-0.831 -0.379 2.845 78 47 24
-0.826 -0.379 2.845 79 48 29
-0.821 -0.379 2.845 77 49 35
-0.823 -0.382 2.869 76 47 35
-0.818 -0.382 2.869 79 47 36
-0.814 -0.382 2.869 82 47 31
-0.809 -0.382 2.869 82 48 26
-0.804 -0.382 2.869 83 48 30
-0.799 -0.382 2.869 83 49 34
-0.794 -0.382 2.869 83 48 34
-0.789 -0.382 2.869 83 49 35
-0.785 -0.382 2.869 84 50 38
-0.773 -0.379 2.845 84 51 41
-0.768 -0.379 2.845 85 52 42
-0.764 -0.379 2.845 86 52 44
-0.759 -0.379 2.845 88 51 44
-0.754 -0.379 2.845 86 51 45
-0.749 -0.379 2.845 85 51 44
-0.745 -0.379 2.845 85 51 44
-0.740 -0.379 2.845 86 51 42
-0.735 -0.379 2.845 86 51 40
-0.730 -0.379 2.845 86 52 38
-0.725 -0.379 2.845 86 54 37
-0.721 -0.379 2.845 87 54 40
-0.716 -0.379 2.845 88 54 43
-0.717 -0.382 2.869 90 55 42
-0.706 -0.379 2.845 90 56 42
-0.701 -0.379 2.845 91 56 41
-0.697 -0.379 2.845 91 56 41
-0.692 -0.379 2.845 92 57 41
-0.687 -0.379 2.845 92 59 42
-0.682 -0.379 2.845 92 59 42
-0.672 -0.376 2.822 92 59 42
-0.667 -0.376 2.822 92 59 44
-0.663 -0.376 2.822 91 60 46
-0.658 -0.376 2.822 91 60 46
-0.653 -0.376 2.822 90 61 47
-0.648 -0.376 2.822 90 60 50
-0.644 -0.376 2.822 92 62 53
-0.639 -0.376 2.822 94 62 51
-0.639 -0.379 2.845 95 62 50
-0.629 -0.376 2.822 97 62 49
-0.630 -0.379 2.845 97 61 48
-0.625 -0.379 2.845 97 65 52
-0.620 -0.379 2.845 97 67 56
-0.615 -0.379 2.845 98 64 54
-0.610 -0.379 2.845 98 63 52
-0.601 -0.376 2.822 98 63 51
-0.596 -0.376 2.822 100 62 50
-0.591 -0.376 2.822 102 65 52
-0.587 -0.376 2.822 101 67 54
-0.582 -0.376 2.822 100 65 53
-0.577 -0.376 2.822 101 66 53
-0.572 -0.376 2.822 102 67 52
-0.568 -0.376 2.822 102 68 51
-0.563 -0.376 2.822 102 69 52
-0.558 -0.376 2.822 103 71 53
-0.553 -0.376 2.822 104 69 54
-0.553 -0.379 2.845 104 68 55
-0.544 -0.376 2.822 104 69 57
-0.539 -0.376 2.822 105 70 59
-0.534 -0.376 2.822 106 71 58
-0.530 -0.376 2.822 107 72 58
-0.525 -0.376 2.822 108 73 53
-0.520 -0.376 2.822 108 76 48
-0.511 -0.373 2.799 108 74 54
-0.506 -0.373 2.799 109 74 60
-0.502 -0.373 2.799 110 74 56
-0.497 -0.373 2.799 111 75 53
-0.492 -0.373 2.799 112 76 52
-0.488 -0.373 2.799 113 77 52
-0.487 -0.376 2.822 115 77 54
-0.482 -0.376 2.822 113 77 57
-0.477 -0.376 2.822 112 77 59
-0.473 -0.376 2.822 112 78 62
-0.468 -0.376 2.822 113 79 63
-0.463 -0.376 2.822 113 81 65
-0.458 -0.376 2.822 113 79 64
-0.454 -0.376 2.822 113 79 63
-0.449 -0.376 2.822 113 79 62
-0.444 -0.376 2.822 114 80 62
-0.439 -0.376 2.822 116 81 64
-0.435 -0.376 2.822 116 82 66
-0.430 -0.376 2.822 117 82 65
-0.425 -0.376 2.822 120 82 65
-0.420 -0.376 2.822 123 83 68
-0.416 -0.376 2.822 121 85 72
-0.411 -0.376 2.822 119 84 68
-0.406 -0.376 2.822 119 85 64
-0.401 -0.376 2.822 120 84 65
-0.397 -0.376 2.822 120 83 66
-0.392 -0.376 2.822 120 86 66
-0.387 -0.376 2.822 120 87 67
-0.382 -0.376 2.822 121 87 68
-0.378 -0.376 2.822 121 88 69
-0.373 -0.376 2.822 122 87 66
-0.365 -0.373 2.799 122 86 63
-0.363 -0.376 2.822 123 87 65
-0.359 -0.376 2.822 123 87 68
-0.351 -0.373 2.799 123 87 70
-0.349 -0.376 2.822 123 87 72
-0.344 -0.376 2.822 124 87 72
-0.119 -0.187 1.402 41 13 1
-0.116 -0.186 1.396 40 14 1
-0.114 -0.186 1.396 39 11 1
-0.112 -0.186 1.396 38 11 2
-0.109 -0.186 1.396 38 9 2
-0.106 -0.185 1.390 37 9 2
-0.104 -0.185 1.390 36 8 1
-0.101 -0.184 1.385 38 10 1
-0.099 -0.184 1.385 41 7 1
-0.096 -0.184 1.379 37 7 2
-0.094 -0.184 1.379 34 5 4
-0.092 -0.184 1.379 44 7 6
-0.089 -0.183 1.374 54 11 9
-0.087 -0.183 1.374 66 16 13
-0.084 -0.183 1.374 78 26 15
-0.082 -0.183 1.374 85 39 18
-0.079 -0.182 1.368 92 45 9
-0.077 -0.183 1.374 85 44 1
-0.075 -0.182 1.368 79 22 1
-0.073 -0.182 1.368 63 3 2
-0.070 -0.182 1.368 47 3 1
-0.068 -0.182 1.368 47 3 1
-0.066 -0.182 1.368 47 7 1
-0.063 -0.182 1.368 45 7 1
-0.061 -0.182 1.368 44 6 1
-0.059 -0.182 1.368 43 7 2
-0.056 -0.182 1.368 43 7 2
-0.054 -0.182 1.368 45 8 2
-0.052 -0.182 1.368 47 9 2
-0.049 -0.182 1.368 50 13 3
-0.047 -0.182 1.368 53 15 5
-0.045 -0.182 1.368 59 22 7
-0.043 -0.183 1.374 65 26 8
-0.040 -0.182 1.368 73 38 10
-0.038 -0.183 1.374 82 32 20
-0.036 -0.183 1.374 71 31 30
-0.034 -0.183 1.374 61 26 18
-0.031 -0.183 1.374 45 7 7
-0.029 -0.183 1.374 30 15 6
-0.027 -0.184 1.379 49 16 5
-0.024 -0.184 1.379 68 21 5
-0.022 -0.184 1.379 73 24 6
-0.020 -0.184 1.379 78 22 4
-0.017 -0.184 1.379 71 22 3
-0.015 -0.184 1.385 65 17 2
-0.013 -0.184 1.385 53 14 1
-0.011 -0.185 1.390 41 6 1
-0.008 -0.185 1.390 32 3 1
-0.006 -0.186 1.396 23 3 1
-0.004 -0.187 1.402 25 3 2
-0.001 -0.188 1.413 28 4 3
0.001 -0.190 1.425 20 3 5
0.004 -0.191 1.431 12 9 7
0.006 -0.191 1.437 45 21 9
0.008 -0.191 1.437 79 40 23
0.011 -0.192 1.443 101 85 38
0.013 -0.193 1.449 123 84 45
0.100 -0.370 2.777 122 79 56
0.105 -0.370 2.777 120 79 56
0.110 -0.370 2.777 118 81 53
0.115 -0.373 2.799 116 83 50
0.120 -0.373 2.799 114 81 55
0.124 -0.370 2.777 110 81 61
0.129 -0.370 2.777 107 77 65
0.133 -0.370 2.777 101 74 69
0.138 -0.370 2.777 96 66 66
0.143 -0.370 2.777 92 60 64
0.147 -0.370 2.777 88 59 63
0.152 -0.370 2.777 86 60 62
0.157 -0.370 2.777 84 57 57
0.161 -0.370 2.777 81 56 52
0.166 -0.370 2.777 79 58 52
0.171 -0.370 2.777 74 58 52
0.175 -0.370 2.777 69 57 52
0.180 -0.370 2.777 73 56 53
0.185 -0.370 2.777 78 57 53
0.189 -0.370 2.777 77 56 53
0.194 -0.370 2.777 77 54 51
0.199 -0.370 2.777 76 53 49
0.203 -0.370 2.777 76 53 49
0.208 -0.370 2.777 74 53 50
0.213 -0.370 2.777 72 51 46
0.216 -0.367 2.754 72 51 42
0.220 -0.367 2.754 72 49 42
0.225 -0.367 2.754 72 48 43
0.229 -0.367 2.754 73 49 51
0.234 -0.367 2.754 75 53 60
0.239 -0.367 2.754 77 53 56
0.243 -0.367 2.754 101 67 53
0.248 -0.367 2.754 126 78 54
0.255 -0.370 2.777 129 81 56
0.259 -0.370 2.777 132 68 45
0.264 -0.370 2.777 130 52 34
0.271 -0.373 2.799 128 43 26
0.276 -0.373 2.799 126 41 18
0.407 -0.364 2.733 122 88 58
0.412 -0.364 2.733 122 80 54
0.413 -0.361 2.711 108 69 51
0.417 -0.361 2.711 94 60 47
0.422 -0.361 2.711 90 58 43
0.427 -0.361 2.711 87 55 39
0.431 -0.361 2.711 87 55 36
0.436 -0.361 2.711 87 54 33
0.440 -0.361 2.711 89 54 30
0.445 -0.361 2.711 91 52 33
0.446 -0.358 2.690 86 53 36
0.454 -0.361 2.711 82 53 34
0.455 -0.358 2.690 83 51 33
0.459 -0.358 2.690 85 52 35
0.464 -0.358 2.690 86 51 38
0.469 -0.358 2.690 88 49 33
0.473 -0.358 2.690 86 50 29
0.478 -0.358 2.690 85 51 26
0.482 -0.358 2.690 86 54 23
0.487 -0.358 2.690 88 52 22
0.491 -0.358 2.690 85 51 21
0.496 -0.358 2.690 82 49 20
0.500 -0.358 2.690 82 49 19
0.505 -0.358 2.690 83 50 25
0.505 -0.355 2.669 82 51 31
0.510 -0.355 2.669 81 50 30
0.518 -0.358 2.690 80 51 30
0.523 -0.358 2.690 80 49 35
0.527 -0.358 2.690 79 51 40
0.532 -0.358 2.690 78 50 29
0.536 -0.358 2.690 77 50 19
0.541 -0.358 2.690 77 48 23
0.546 -0.358 2.690 77 49 27
0.554 -0.361 2.711 77 47 26
0.555 -0.358 2.690 79 47 26
0.559 -0.358 2.690 82 47 25
0.564 -0.358 2.690 79 48 25
0.568 -0.358 2.690 77 47 24
0.573 -0.358 2.690 76 49 24
0.577 -0.358 2.690 76 47 26
0.582 -0.358 2.690 76 47 29
0.586 -0.358 2.690 76 46 23
0.591 -0.358 2.690 77 45 18
0.595 -0.358 2.690 78 45 24
0.600 -0.358 2.690 77 46 31
0.604 -0.358 2.690 76 45 27
0.609 -0.358 2.690 74 45 24
0.613 -0.358 2.690 72 44 22
0.618 -0.358 2.690 72 44 20
0.622 -0.358 2.690 73 44 21
0.627 -0.358 2.690 73 45 23
0.632 -0.358 2.690 73 44 26
0.636 -0.358 2.690 68 46 30
0.641 -0.358 2.690 64 45 26
0.645 -0.358 2.690 71 46 23
0.650 -0.358 2.690 78 43 20
0.654 -0.358 2.690 74 41 17
0.659 -0.358 2.690 70 42 15
0.663 -0.358 2.690 71 42 13
0.668 -0.358 2.690 72 43 15
0.672 -0.358 2.690 74 44 18
0.677 -0.358 2.690 76 43 18
0.681 -0.358 2.690 73 43 18
0.686 -0.358 2.690 71 42 18
0.690 -0.358 2.690 70 42 19
0.695 -0.358 2.690 70 41 19
0.694 -0.355 2.669 72 41 20
0.698 -0.355 2.669 75 40 21
0.703 -0.355 2.669 73 39 22
0.702 -0.353 2.649 72 39 18
0.707 -0.353 2.649 70 39 14
0.711 -0.353 2.649 69 39 19
0.716 -0.353 2.649 67 40 24
0.715 -0.350 2.629 66 39 24
-1.172 -0.270 2.051 14 8 26
-1.175 -0.271 2.063 14 9 24
-1.186 -0.274 2.088 25 11 23
-1.182 -0.274 2.088 36 15 15
-1.179 -0.274 2.088 48 21 7
-1.175 -0.274 2.088 61 25 4
-1.172 -0.274 2.088 60 15 1
-1.168 -0.274 2.088 59 9 1
-1.165 -0.274 2.088 56 5 1
-1.257 -0.298 2.266 54 1 1
-1.253 -0.298 2.266 55 2 5
-1.241 -0.296 2.252 58 2 9
-1.245 -0.298 2.266 62 2 6
-1.241 -0.298 2.266 50 2 3
-1.237 -0.298 2.266 38 3 2
-1.234 -0.298 2.266 24 2 2
-1.230 -0.298 2.266 11 2 5
-1.234 -0.300 2.281 23 5 9
-1.239 -0.302 2.297 36 9 10
-1.267 -0.317 2.409 21 12 1
-1.263 -0.317 2.409 24 9 2
-1.259 -0.317 2.409 28 9 3
-1.255 -0.317 2.409 29 8 4
-1.251 -0.317 2.409 31 6 3
-1.255 -0.319 2.426 29 6 3
-1.260 -0.321 2.443 27 7 3
-1.256 -0.321 2.443 27 7 3
-1.270 -0.326 2.478 28 9 3
-1.284 -0.330 2.514 30 8 4
-1.280 -0.330 2.514 32 9 6
-1.294 -0.335 2.551 32 9 9
-1.309 -0.340 2.589 32 10 6
-1.315 -0.343 2.609 32 8 4
-1.311 -0.343 2.609 32 8 4
-1.306 -0.343 2.609 30 7 4
-1.312 -0.346 2.629 29 6 3
-1.307 -0.346 2.629 29 6 2
-1.303 -0.346 2.629 29 7 2
-1.299 -0.346 2.629 35 8 2
-1.304 -0.348 2.649 42 11 7
-1.300 -0.348 2.649 47 13 12
-1.295 -0.348 2.649 52 17 14
-1.300 -0.351 2.669 77 50 17
-1.306 -0.354 2.690 102 63 29
-1.302 -0.354 2.690 99 61 42
-1.307 -0.356 2.711 96 60 34
-1.303 -0.356 2.711 97 64 26
-1.309 -0.359 2.733 98 66 29
-1.304 -0.359 2.733 97 65 33
-1.299 -0.359 2.733 97 65 37
-1.305 -0.362 2.754 98 65 41
-1.300 -0.362 2.754 99 66 43
-1.306 -0.365 2.777 97 65 45
-1.302 -0.365 2.777 95 66 45
-1.297 -0.365 2.777 96 64 45
-1.292 -0.365 2.777 98 64 47
-1.288 -0.365 2.777 100 62 49
-1.283 -0.365 2.777 102 62 48
-1.278 -0.365 2.777 100 61 47
-1.274 -0.365 2.777 99 62 48
-1.269 -0.365 2.777 98 63 49
-1.264 -0.365 2.777 97 63 49
-1.259 -0.365 2.777 96 63 49
-1.255 -0.365 2.777 96 63 48
-1.250 -0.365 2.777 97 61 47
-1.245 -0.365 2.777 99 60 45
-1.241 -0.365 2.777 100 61 44
-1.236 -0.365 2.777 102 62 37
-1.231 -0.365 2.777 100 62 31
-1.236 -0.368 2.799 98 60 32
-1.232 -0.368 2.799 97 61 34
-1.237 -0.371 2.822 97 63 34
-1.242 -0.374 2.845 96 61 34
-1.238 -0.374 2.845 96 60 38
-1.243 -0.377 2.869 97 61 42
-1.238 -0.377 2.869 98 62 42
-1.234 -0.377 2.869 97 61 42
-1.229 -0.377 2.869 97 63 39
-1.224 -0.377 2.869 97 63 37
-1.219 -0.377 2.869 98 65 30
-1.224 -0.380 2.893 89 64 24
-1.220 -0.380 2.893 80 63 29
-1.215 -0.380 2.893 70 36 34
-1.210 -0.380 2.893 61 25 24
-1.205 -0.380 2.893 56 30 15
-1.200 -0.380 2.893 52 34 18
-1.195 -0.380 2.893 55 32 21
-1.190 -0.380 2.893 58 31 19
-1.186 -0.380 2.893 58 30 18
-1.181 -0.380 2.893 58 30 16
-1.176 -0.380 2.893 58 32 15
-1.171 -0.380 2.893 58 34 10
-1.166 -0.380 2.893 56 30 5
-1.152 -0.377 2.869 54 31 9
-1.156 -0.380 2.893 56 32 14
-1.151 -0.380 2.893 58 34 17
-1.147 -0.380 2.893 57 32 20
-1.142 -0.380 2.893 56 32 17
-1.127 -0.377 2.869 55 32 14
-1.123 -0.377 2.869 54 32 17
-1.118 -0.377 2.869 54 31 20
-1.122 -0.380 2.893 55 33 17
-1.117 -0.380 2.893 58 30 14
-1.112 -0.380 2.893 62 28 11
-1.108 -0.380 2.893 60 30 9
-1.103 -0.380 2.893 58 34 12
-1.098 -0.380 2.893 58 31 16
-1.093 -0.380 2.893 59 29 15
-1.088 -0.380 2.893 60 28 14
-1.083 -0.380 2.893 61 28 17
-1.069 -0.377 2.869 60 29 21
-1.065 -0.377 2.869 59 30 21
-1.060 -0.377 2.869 59 30 21
-1.055 -0.377 2.869 60 31 22
-1.050 -0.377 2.869 60 32 23
-1.045 -0.377 2.869 60 36 21
-1.040 -0.377 2.869 60 34 19
-1.044 -0.380 2.893 61 34 19
-1.039 -0.380 2.893 62 35 20
-1.035 -0.380 2.893 63 36 17
-1.030 -0.380 2.893 64 34 14
-1.025 -0.380 2.893 65 35 17
-1.020 -0.380 2.893 64 33 21
-1.015 -0.380 2.893 64 34 24
-1.010 -0.380 2.893 64 34 27
-0.997 -0.377 2.869 65 36 20
-0.992 -0.377 2.869 65 35 14
-0.987 -0.377 2.869 66 39 18
-0.983 -0.377 2.869 67 36 22
-0.978 -0.377 2.869 68 36 21
-0.973 -0.377 2.869 67 36 21
-0.968 -0.377 2.869 67 39 20
-0.963 -0.377 2.869 68 39 19
-0.958 -0.377 2.869 70 41 18
-0.954 -0.377 2.869 70 38 18
-0.949 -0.377 2.869 71 38 15
-0.944 -0.377 2.869 70 41 12
-0.939 -0.377 2.869 69 43 16
-0.934 -0.377 2.869 70 43 21
-0.929 -0.377 2.869 72 44 24
-0.925 -0.377 2.869 72 42 28
-0.920 -0.377 2.869 72 41 20
-0.907 -0.374 2.845 72 41 12
-0.903 -0.374 2.845 72 42 20
-0.905 -0.377 2.869 73 43 29
-0.900 -0.377 2.869 74 44 29
-0.888 -0.374 2.845 74 43 30
-0.883 -0.374 2.845 75 44 28
-0.879 -0.374 2.845 75 46 27
-0.874 -0.374 2.845 75 48 27
-0.869 -0.374 2.845 74 46 28
-0.864 -0.374 2.845 73 47 31
-0.859 -0.374 2.845 75 46 35
-0.848 -0.371 2.822 77 46 31
-0.850 -0.374 2.845 77 45 28
-0.838 -0.371 2.822 77 46 28
-0.840 -0.374 2.845 77 47 29
-0.835 -0.374 2.845 77 49 30
-0.831 -0.374 2.845 78 47 31
-0.826 -0.374 2.845 79 47 35
-0.821 -0.374 2.845 78 48 39
-0.823 -0.377 2.869 78 49 37
-0.818 -0.377 2.869 80 48 35
-0.814 -0.377 2.869 82 50 31
-0.809 -0.377 2.869 82 48 28
-0.804 -0.377 2.869 82 49 31
-0.799 -0.377 2.869 82 50 34
-0.794 -0.377 2.869 83 50 34
-0.789 -0.377 2.869 83 49 35
-0.785 -0.377 2.869 84 50 39
-0.773 -0.374 2.845 83 51 43
-0.768 -0.374 2.845 82 54 43
-0.764 -0.374 2.845 83 52 44
-0.759 -0.374 2.845 85 51 44
-0.754 -0.374 2.845 85 50 45
-0.749 -0.374 2.845 85 50 47
-0.745 -0.374 2.845 87 50 49
-0.740 -0.374 2.845 90 51 44
-0.741 -0.377 2.869 88 50 40
-0.730 -0.374 2.845 86 51 40
-0.725 -0.374 2.845 87 53 41
-0.721 -0.374 2.845 88 55 41
-0.722 -0.377 2.869 89 54 42
-0.717 -0.377 2.869 90 56 43
-0.706 -0.374 2.845 90 55 45
-0.701 -0.374 2.845 90 55 43
-0.697 -0.374 2.845 91 57 42
-0.692 -0.374 2.845 92 59 42
-0.687 -0.374 2.845 92 59 42
-0.682 -0.374 2.845 92 61 43
-0.672 -0.371 2.822 92 60 44
-0.667 -0.371 2.822 92 60 46
-0.663 -0.371 2.822 92 60 49
-0.658 -0.371 2.822 92 60 49
-0.653 -0.371 2.822 92 60 49
-0.648 -0.371 2.822 92 62 53
-0.644 -0.371 2.822 93 62 57
-0.639 -0.371 2.822 94 63 55
-0.634 -0.371 2.822 96 62 53
-0.629 -0.371 2.822 98 63 50
-0.630 -0.374 2.845 97 64 47
-0.625 -0.374 2.845 97 69 53
-0.620 -0.374 2.845 98 67 59
-0.615 -0.374 2.845 100 65 55
-0.606 -0.371 2.822 100 64 52
-0.601 -0.371 2.822 100 66 50
-0.596 -0.371 2.822 101 65 49
-0.591 -0.371 2.822 102 69 51
-0.582 -0.368 2.799 100 69 54
-0.582 -0.371 2.822 98 70 52
-0.577 -0.371 2.822 100 68 50
-0.572 -0.371 2.822 102 69 51
-0.568 -0.371 2.822 102 69 52
-0.563 -0.371 2.822 102 71 54
-0.558 -0.371 2.822 103 71 56
-0.553 -0.371 2.822 104 70 56
-0.553 -0.374 2.845 104 69 56
-0.548 -0.374 2.845 104 69 59
-0.543 -0.374 2.845 104 70 63
-0.534 -0.371 2.822 104 71 64
-0.530 -0.371 2.822 106 72 65
-0.525 -0.371 2.822 109 73 61
-0.516 -0.368 2.799 108 74 58
-0.511 -0.368 2.799 108 75 63
-0.506 -0.368 2.799 109 73 68
-0.502 -0.368 2.799 110 73 62
-0.497 -0.368 2.799 111 75 56
-0.492 -0.368 2.799 112 78 55
-0.488 -0.368 2.799 112 78 54
-0.483 -0.368 2.799 113 80 54
-0.482 -0.371 2.822 112 79 54
-0.477 -0.371 2.822 112 79 56
-0.473 -0.371 2.822 112 79 59
-0.468 -0.371 2.822 113 82 62
-0.463 -0.371 2.822 113 80 66
-0.458 -0.371 2.822 113 80 64
-0.454 -0.371 2.822 113 80 63
-0.445 -0.368 2.799 114 81 61
-0.440 -0.368 2.799 115 81 60
-0.439 -0.371 2.822 116 82 63
-0.435 -0.371 2.822 116 82 66
-0.430 -0.371 2.822 117 84 65
-0.425 -0.371 2.822 117 83 65
-0.420 -0.371 2.822 117 84 66
-0.416 -0.371 2.822 118 84 67
-0.414 -0.374 2.845 119 85 66
-0.409 -0.374 2.845 120 85 65
-0.401 -0.371 2.822 121 85 66
-0.397 -0.371 2.822 121 85 67
-0.392 -0.371 2.822 122 87 70
-0.387 -0.371 2.822 122 86 73
-0.382 -0.371 2.822 122 87 72
-0.378 -0.371 2.822 122 87 72
-0.373 -0.371 2.822 123 87 68
-0.368 -0.371 2.822 123 86 65
-0.363 -0.371 2.822 123 88 71
-0.359 -0.371 2.822 123 87 78
-0.351 -0.368 2.799 123 88 75
-0.349 -0.371 2.822 123 88 72
-0.344 -0.371 2.822 124 89 72
-0.119 -0.184 1.402 41 16 1
-0.116 -0.184 1.396 43 14 1
-0.114 -0.184 1.396 45 12 1
-0.112 -0.184 1.396 41 10 2
-0.109 -0.184 1.396 38 9 2
-0.106 -0.183 1.390 35 9 3
-0.104 -0.183 1.390 33 10 2
-0.102 -0.183 1.390 28 8 1
-0.099 -0.182 1.385 24 6 1
-0.097 -0.182 1.385 30 5 2
-0.094 -0.181 1.379 36 4 5
-0.092 -0.181 1.379 44 8 8
-0.089 -0.181 1.374 53 13 11
-0.087 -0.181 1.374 65 19 15
-0.084 -0.181 1.374 77 30 24
-0.082 -0.181 1.374 89 39 34
-0.080 -0.181 1.374 101 47 18
-0.077 -0.181 1.374 93 42 2
-0.075 -0.181 1.374 85 34 2
-0.073 -0.180 1.368 68 12 3
-0.070 -0.180 1.368 51 3 2
-0.068 -0.180 1.368 51 5 1
-0.066 -0.180 1.368 52 7 1
-0.063 -0.180 1.368 50 7 1
-0.061 -0.180 1.368 49 4 2
-0.059 -0.180 1.368 48 6 3
-0.056 -0.180 1.368 47 9 2
-0.054 -0.180 1.368 47 7 2
-0.052 -0.180 1.368 47 8 3
-0.049 -0.180 1.368 44 9 4
-0.047 -0.180 1.368 41 11 4
-0.045 -0.180 1.368 49 13 5
-0.043 -0.180 1.368 58 15 8
-0.040 -0.180 1.368 56 19 11
-0.038 -0.180 1.368 55 17 13
-0.036 -0.181 1.374 58 16 16
-0.034 -0.181 1.374 62 7 12
-0.031 -0.181 1.374 60 13 9
-0.029 -0.181 1.374 59 21 9
-0.027 -0.181 1.379 66 22 9
-0.024 -0.181 1.379 74 29 8
-0.022 -0.181 1.379 77 25 7
-0.020 -0.181 1.379 80 22 5
-0.017 -0.182 1.385 72 24 3
-0.015 -0.182 1.385 65 21 2
-0.013 -0.182 1.385 53 14 1
-0.011 -0.183 1.390 41 7 1
-0.008 -0.184 1.396 33 4 1
-0.006 -0.184 1.396 25 4 1
-0.004 -0.184 1.402 28 4 1
-0.001 -0.185 1.407 32 5 1
0.001 -0.187 1.425 25 3 1
0.004 -0.188 1.431 18 4 1
0.006 -0.189 1.437 48 15 1
0.008 -0.189 1.437 78 31 28
0.125 -0.368 2.799 108 78 59
0.130 -0.368 2.799 103 76 60
0.133 -0.365 2.777 96 65 62
0.138 -0.365 2.777 90 57 60
0.143 -0.365 2.777 86 56 58
0.147 -0.365 2.777 82 55 57
0.152 -0.365 2.777 80 57 56
0.157 -0.365 2.777 78 56 53
0.161 -0.365 2.777 77 56 50
0.166 -0.365 2.777 76 55 51
0.171 -0.365 2.777 73 56 52
0.175 -0.365 2.777 71 53 51
0.180 -0.365 2.777 74 54 51
0.185 -0.365 2.777 77 55 51
0.189 -0.365 2.777 76 53 52
0.194 -0.365 2.777 76 51 48
0.197 -0.362 2.754 75 51 45
0.203 -0.365 2.777 74 50 47
0.208 -0.365 2.777 71 48 50
0.213 -0.365 2.777 69 47 43
0.216 -0.362 2.754 67 46 37
0.220 -0.362 2.754 65 45 37
0.225 -0.362 2.754 65 45 37
0.229 -0.362 2.754 66 47 44
0.234 -0.362 2.754 66 46 51
0.239 -0.362 2.754 66 42 51
0.243 -0.362 2.754 92 62 52
0.248 -0.362 2.754 118 82 60
0.255 -0.365 2.777 125 78 69
0.259 -0.365 2.777 132 73 49
0.264 -0.365 2.777 128 52 30
0.271 -0.368 2.799 125 41 21
0.408 -0.356 2.711 113 78 55
0.413 -0.356 2.711 102 63 53
0.417 -0.356 2.711 92 55 46
0.422 -0.356 2.711 89 55 39
0.427 -0.356 2.711 86 54 37
0.431 -0.356 2.711 85 55 36
0.436 -0.356 2.711 84 54 35
0.437 -0.354 2.690 86 53 34
0.441 -0.354 2.690 88 53 30
0.446 -0.354 2.690 85 53 26
0.454 -0.356 2.711 83 54 29
0.459 -0.356 2.711 84 52 33
0.463 -0.356 2.711 85 53 39
0.464 -0.354 2.690 85 51 46
0.469 -0.354 2.690 86 50 38
0.477 -0.356 2.711 85 50 30
0.481 -0.356 2.711 84 53 24
0.486 -0.356 2.711 84 53 18
0.487 -0.354 2.690 85 54 17
0.491 -0.354 2.690 82 52 17
0.496 -0.354 2.690 80 51 15
0.500 -0.354 2.690 81 50 14
0.505 -0.354 2.690 82 53 17
0.505 -0.351 2.669 81 51 21
0.510 -0.351 2.669 81 51 24
0.518 -0.354 2.690 80 50 27
0.523 -0.354 2.690 79 49 36
0.527 -0.354 2.690 78 50 46
0.532 -0.354 2.690 77 51 30
0.536 -0.354 2.690 77 49 14
0.541 -0.354 2.690 77 48 22
0.546 -0.354 2.690 77 48 30
0.550 -0.354 2.690 77 46 30
0.555 -0.354 2.690 78 46 30
0.559 -0.354 2.690 80 46 25
0.564 -0.354 2.690 78 46 21
0.568 -0.354 2.690 77 46 21
0.573 -0.354 2.690 77 46 21
0.577 -0.354 2.690 78 47 20
0.582 -0.354 2.690 77 46 19
0.586 -0.354 2.690 76 47 19
0.591 -0.354 2.690 76 45 20
0.595 -0.354 2.690 76 46 20
0.600 -0.354 2.690 75 46 20
0.604 -0.354 2.690 75 46 18
0.609 -0.354 2.690 74 45 17
0.613 -0.354 2.690 73 46 17
0.618 -0.354 2.690 73 45 17
0.622 -0.354 2.690 73 45 21
0.627 -0.354 2.690 73 45 25
0.632 -0.354 2.690 74 46 26
0.636 -0.354 2.690 71 45 28
0.641 -0.354 2.690 68 44 24
0.645 -0.354 2.690 71 44 21
0.650 -0.354 2.690 75 42 17
0.654 -0.354 2.690 71 43 14
0.659 -0.354 2.690 67 44 13
0.663 -0.354 2.690 69 43 12
0.668 -0.354 2.690 71 43 17
0.672 -0.354 2.690 72 44 22
0.677 -0.354 2.690 74 46 22
0.681 -0.354 2.690 71 44 22
0.680 -0.351 2.669 69 42 21
0.685 -0.351 2.669 69 42 20
0.689 -0.351 2.669 70 42 19
0.694 -0.351 2.669 71 41 19
0.698 -0.351 2.669 72 40 19
0.703 -0.351 2.669 71 39 19
0.702 -0.348 2.649 70 39 13
0.707 -0.348 2.649 69 40 7
0.706 -0.346 2.629 68 42 11
0.716 -0.348 2.649 65 41 16
0.715 -0.346 2.629 63 41 20
-1.172 -0.266 2.051 14 10 27
-1.175 -0.268 2.063 14 10 25
-1.179 -0.269 2.076 26 12 23
-1.176 -0.269 2.076 38 18 15
-1.172 -0.269 2.076 48 27 7
-1.175 -0.271 2.088 59 23 4
-1.172 -0.271 2.088 58 17 1
-1.168 -0.271 2.088 58 11 1
-1.165 -0.271 2.088 57 7 1
-1.155 -0.269 2.076 57 3 1
-1.151 -0.269 2.076 56 1 1
-1.245 -0.292 2.252 55 2 3
-1.241 -0.292 2.252 53 3 6
-1.245 -0.294 2.266 51 2 4
-1.241 -0.294 2.266 42 3 3
-1.237 -0.294 2.266 34 2 2
-1.234 -0.294 2.266 18 2 2
-1.238 -0.296 2.281 2 3 4
-1.234 -0.296 2.281 14 7 7
-1.267 -0.313 2.409 25 9 2
-1.263 -0.313 2.409 27 10 3
-1.255 -0.313 2.409 29 10 4
-1.251 -0.313 2.409 29 7 4
-1.255 -0.315 2.426 27 5 5
-1.260 -0.317 2.443 26 6 5
-1.256 -0.317 2.443 27 7 5
-1.270 -0.322 2.478 28 7 5
-1.284 -0.326 2.514 29 9 6
-1.289 -0.329 2.532 30 9 9
-1.294 -0.331 2.551 30 10 13
-1.300 -0.334 2.570 30 10 9
-1.315 -0.339 2.609 30 8 6
-1.311 -0.339 2.609 30 8 5
-1.306 -0.339 2.609 27 10 4
-1.312 -0.341 2.629 25 7 3
-1.307 -0.341 2.629 26 7 2
-1.303 -0.341 2.629 28 8 2
-1.308 -0.344 2.649 34 10 2
-1.304 -0.344 2.649 41 11 9
-1.300 -0.344 2.649 43 14 16
-1.305 -0.346 2.669 45 24 18
-1.300 -0.346 2.669 71 55 20
-1.306 -0.349 2.690 98 61 34
-1.302 -0.349 2.690 97 62 48
-1.307 -0.352 2.711 97 62 40
-1.303 -0.352 2.711 99 65 32
-1.298 -0.352 2.711 102 65 34
-1.293 -0.352 2.711 100 65 36
-1.299 -0.355 2.733 98 65 39
-1.295 -0.355 2.733 98 64 42
-1.300 -0.357 2.754 98 64 44
-1.306 -0.360 2.777 96 64 47
-1.302 -0.360 2.777 95 64 48
-1.307 -0.363 2.799 96 63 49
-1.302 -0.363 2.799 98 62 47
-1.288 -0.360 2.777 101 62 46
-1.283 -0.360 2.777 104 63 47
-1.278 -0.360 2.777 102 62 48
-1.274 -0.360 2.777 100 63 47
-1.269 -0.360 2.777 99 66 47
-1.264 -0.360 2.777 98 64 48
-1.259 -0.360 2.777 98 64 49
-1.255 -0.360 2.777 98 62 48
-1.250 -0.360 2.777 99 60 48
-1.245 -0.360 2.777 100 60 46
-1.241 -0.360 2.777 99 61 44
-1.246 -0.363 2.799 99 62 39
-1.241 -0.363 2.799 99 64 35
-1.236 -0.363 2.799 99 62 35
-1.232 -0.363 2.799 98 63 36
-1.237 -0.366 2.822 97 63 33
-1.242 -0.369 2.845 96 63 31
-1.238 -0.369 2.845 96 61 37
-1.233 -0.369 2.845 99 60 43
-1.238 -0.372 2.869 102 61 44
-1.234 -0.372 2.869 99 61 45
-1.229 -0.372 2.869 97 62 44
-1.224 -0.372 2.869 95 65 43
-1.219 -0.372 2.869 94 66 36
-1.224 -0.375 2.893 87 67 29
-1.220 -0.375 2.893 81 54 31
-1.215 -0.375 2.893 71 29 34
-1.210 -0.375 2.893 62 29 26
-1.205 -0.375 2.893 56 35 19
-1.200 -0.375 2.893 50 34 18
-1.195 -0.375 2.893 54 34 18
-1.190 -0.375 2.893 58 32 15
-1.186 -0.375 2.893 58 30 13
-1.181 -0.375 2.893 58 30 17
-1.176 -0.375 2.893 58 31 21
-1.171 -0.375 2.893 58 30 16
-1.166 -0.375 2.893 60 28 12
-1.152 -0.372 2.869 62 30 14
-1.156 -0.375 2.893 60 33 17
-1.151 -0.375 2.893 58 33 18
-1.137 -0.372 2.869 56 33 19
-1.132 -0.372 2.869 55 32 18
-1.127 -0.372 2.869 55 33 17
-1.123 -0.372 2.869 55 31 18
-1.118 -0.372 2.869 56 30 19
-1.113 -0.372 2.869 57 30 18
-1.108 -0.372 2.869 60 30 17
-1.103 -0.372 2.869 63 29 16
-1.108 -0.375 2.893 61 33 15
-1.103 -0.375 2.893 59 32 19
-1.098 -0.375 2.893 58 32 23
-1.093 -0.375 2.893 58 30 20
-1.088 -0.375 2.893 60 29 18
-1.083 -0.375 2.893 62 29 18
-1.078 -0.375 2.893 60 29 19
-1.065 -0.372 2.869 59 30 19
-1.060 -0.372 2.869 60 29 19
-1.055 -0.372 2.869 62 31 20
-1.050 -0.372 2.869 62 32 21
-1.045 -0.372 2.869 62 34 21
-1.040 -0.372 2.869 62 34 21
-1.036 -0.372 2.869 62 33 21
-1.039 -0.375 2.893 63 35 21
-1.035 -0.375 2.893 65 36 16
-1.030 -0.375 2.893 66 37 12
-1.025 -0.375 2.893 67 35 20
-1.020 -0.375 2.893 65 36 28
-1.015 -0.375 2.893 63 36 27
-1.010 -0.375 2.893 65 36 27
-1.005 -0.375 2.893 67 36 24
-0.992 -0.372 2.869 67 36 21
-0.987 -0.372 2.869 67 37 22
-0.983 -0.372 2.869 67 39 24
-0.978 -0.372 2.869 68 38 24
-0.973 -0.372 2.869 68 37 25
-0.968 -0.372 2.869 68 38 23
-0.963 -0.372 2.869 68 40 22
-0.958 -0.372 2.869 69 39 22
-0.954 -0.372 2.869 69 39 22
-0.949 -0.372 2.869 69 40 20
-0.944 -0.372 2.869 70 42 19
-0.939 -0.372 2.869 71 41 21
-0.934 -0.372 2.869 71 41 23
-0.929 -0.372 2.869 72 42 24
-0.925 -0.372 2.869 71 42 26
-0.920 -0.372 2.869 71 42 21
-0.915 -0.372 2.869 71 43 17
-0.910 -0.372 2.869 72 43 22
-0.905 -0.372 2.869 74 45 27
-0.900 -0.372 2.869 76 43 29
-0.888 -0.369 2.845 76 42 31
-0.883 -0.369 2.845 77 44 29
-0.879 -0.369 2.845 76 47 27
-0.874 -0.369 2.845 76 47 27
-0.869 -0.369 2.845 73 47 27
-0.864 -0.369 2.845 71 46 28
-0.859 -0.369 2.845 73 46 29
-0.855 -0.369 2.845 76 46 28
-0.850 -0.369 2.845 76 46 27
-0.845 -0.369 2.845 76 47 26
-0.840 -0.369 2.845 76 49 26
-0.835 -0.369 2.845 76 48 30
-0.838 -0.372 2.869 77 48 35
-0.826 -0.369 2.845 79 47 39
-0.828 -0.372 2.869 79 47 44
-0.823 -0.372 2.869 80 47 41
-0.818 -0.372 2.869 81 47 38
-0.814 -0.372 2.869 83 48 34
-0.809 -0.372 2.869 82 49 31
-0.804 -0.372 2.869 82 51 33
-0.799 -0.372 2.869 82 53 36
-0.794 -0.372 2.869 83 50 36
-0.789 -0.372 2.869 83 49 37
-0.785 -0.372 2.869 84 50 40
-0.773 -0.369 2.845 82 51 43
-0.768 -0.369 2.845 80 53 42
-0.764 -0.369 2.845 81 54 42
-0.759 -0.369 2.845 83 52 42
-0.754 -0.369 2.845 84 51 43
-0.749 -0.369 2.845 85 50 44
-0.745 -0.369 2.845 89 50 45
-0.740 -0.369 2.845 94 51 42
-0.741 -0.372 2.869 90 50 39
-0.736 -0.372 2.869 87 52 39
-0.731 -0.372 2.869 88 55 40
-0.727 -0.372 2.869 89 54 42
-0.722 -0.372 2.869 90 54 44
-0.717 -0.372 2.869 91 55 44
-0.706 -0.369 2.845 90 56 45
-0.701 -0.369 2.845 90 56 42
-0.697 -0.369 2.845 91 59 39
-0.692 -0.369 2.845 92 57 42
-0.687 -0.369 2.845 92 58 46
-0.682 -0.369 2.845 93 60 45
-0.672 -0.366 2.822 93 62 45
-0.667 -0.366 2.822 93 60 46
-0.663 -0.366 2.822 93 61 48
-0.658 -0.366 2.822 93 60 49
-0.648 -0.363 2.799 93 60 50
-0.648 -0.366 2.822 94 62 50
-0.644 -0.366 2.822 94 65 50
-0.639 -0.366 2.822 95 63 50
-0.634 -0.366 2.822 97 61 51
-0.634 -0.369 2.845 100 63 51
-0.630 -0.369 2.845 98 65 51
-0.625 -0.369 2.845 97 66 54
-0.620 -0.369 2.845 100 67 57
-0.615 -0.369 2.845 103 65 54
-0.610 -0.369 2.845 102 65 51
-0.601 -0.366 2.822 102 65 51
-0.596 -0.366 2.822 102 67 51
-0.586 -0.363 2.799 102 68 53
-0.582 -0.363 2.799 99 72 55
-0.577 -0.363 2.799 96 71 53
-0.577 -0.366 2.822 99 71 52
-0.572 -0.366 2.822 102 70 53
-0.568 -0.366 2.822 102 71 54
-0.563 -0.366 2.822 103 72 54
-0.558 -0.366 2.822 104 73 55
-0.553 -0.366 2.822 105 72 56
-0.553 -0.369 2.845 105 71 58
-0.544 -0.366 2.822 105 70 62
-0.543 -0.369 2.845 104 72 66
-0.534 -0.366 2.822 103 72 68
-0.530 -0.366 2.822 106 72 70
-0.521 -0.363 2.799 110 72 64
-0.516 -0.363 2.799 109 72 59
-0.511 -0.363 2.799 108 73 62
-0.506 -0.363 2.799 109 73 66
-0.502 -0.363 2.799 110 74 62
-0.497 -0.363 2.799 111 76 58
-0.492 -0.363 2.799 113 77 56
-0.488 -0.363 2.799 112 80 54
-0.483 -0.363 2.799 112 80 55
-0.482 -0.366 2.822 112 81 57
-0.477 -0.366 2.822 112 80 59
-0.473 -0.366 2.822 112 81 62
-0.468 -0.366 2.822 113 80 64
-0.463 -0.366 2.822 113 79 67
-0.458 -0.366 2.822 113 80 65
-0.454 -0.366 2.822 114 81 64
-0.445 -0.363 2.799 116 80 65
-0.440 -0.363 2.799 116 82 66
-0.439 -0.366 2.822 116 82 70
-0.435 -0.366 2.822 116 83 74
-0.430 -0.366 2.822 117 83 71
-0.425 -0.366 2.822 114 84 68
-0.420 -0.366 2.822 112 84 69
-0.416 -0.366 2.822 115 83 71
-0.411 -0.366 2.822 119 84 70
-0.406 -0.366 2.822 120 86 70
-0.401 -0.366 2.822 122 85 71
-0.397 -0.366 2.822 123 87 72
-0.392 -0.366 2.822 124 86 74
-0.387 -0.366 2.822 123 85 77
-0.382 -0.366 2.822 123 86 75
-0.378 -0.366 2.822 124 86 73
-0.370 -0.363 2.799 125 86 70
-0.365 -0.363 2.799 124 87 68
-0.363 -0.366 2.822 124 87 71
-0.356 -0.363 2.799 124 88 75
-0.351 -0.363 2.799 124 89 73
-0.346 -0.363 2.799 124 90 71
-0.342 -0.363 2.799 125 89 73
-0.122 -0.183 1.413 43 19 11
-0.120 -0.183 1.407 42 15 7
-0.117 -0.182 1.402 47 15 4
-0.114 -0.181 1.396 52 11 3
-0.112 -0.181 1.396 45 12 2
-0.109 -0.181 1.396 39 9 2
-0.106 -0.180 1.390 35 10 2
-0.104 -0.180 1.390 31 9 1
-0.102 -0.180 1.390 19 9 1
-0.099 -0.180 1.385 8 5 1
-0.097 -0.180 1.385 23 4 2
-0.094 -0.179 1.379 39 6 5
-0.091 -0.178 1.374 46 9 8
-0.089 -0.178 1.374 53 14 10
-0.087 -0.178 1.374 65 21 13
-0.084 -0.178 1.374 77 28 17
-0.082 -0.178 1.374 93 41 21
-0.079 -0.178 1.368 110 43 11
-0.077 -0.178 1.374 101 44 2
-0.075 -0.178 1.374 92 31 5
-0.073 -0.178 1.368 73 10 9
-0.070 -0.178 1.368 55 9 5
-0.068 -0.178 1.368 56 8 2
-0.066 -0.178 1.368 58 10 1
-0.063 -0.178 1.368 56 11 1
-0.061 -0.178 1.368 55 10 2
-0.059 -0.178 1.368 53 6 3
-0.056 -0.178 1.368 52 8 3
-0.054 -0.178 1.368 49 4 3
-0.052 -0.178 1.368 47 8 3
-0.049 -0.178 1.368 38 7 3
-0.047 -0.178 1.368 30 9 5
-0.045 -0.178 1.368 40 7 7
-0.043 -0.178 1.368 51 10 8
-0.040 -0.178 1.368 40 7 9
-0.038 -0.178 1.368 29 11 12
-0.036 -0.178 1.374 46 9 15
-0.034 -0.178 1.374 63 12 12
-0.031 -0.178 1.374 75 17 9
-0.029 -0.178 1.374 88 20 13
-0.027 -0.178 1.374 84 24 17
-0.024 -0.179 1.379 80 27 13
-0.022 -0.179 1.379 81 28 9
-0.020 -0.179 1.379 82 28 5
-0.017 -0.180 1.385 73 32 2
-0.015 -0.180 1.385 65 24 3
-0.013 -0.180 1.385 53 15 4
-0.011 -0.180 1.390 41 7 2
-0.008 -0.181 1.396 34 3 1
-0.006 -0.182 1.402 27 5 1
-0.004 -0.182 1.402 31 7 1
-0.001 -0.184 1.419 36 6 1
0.001 -0.185 1.425 30 4 2
0.004 -0.186 1.431 24 5 1
0.006 -0.186 1.437 51 8 1
0.008 -0.186 1.437 78 35 32
0.130 -0.363 2.799 100 69 58
0.133 -0.360 2.777 92 57 62
0.138 -0.360 2.777 85 55 58
0.143 -0.360 2.777 81 53 54
0.147 -0.360 2.777 77 54 53
0.152 -0.360 2.777 75 58 53
0.157 -0.360 2.777 73 55 52
0.161 -0.360 2.777 73 61 52
0.166 -0.360 2.777 74 55 52
0.171 -0.360 2.777 73 58 53
0.175 -0.360 2.777 73 54 52
0.180 -0.360 2.777 74 55 51
0.185 -0.360 2.777 76 53 51
0.188 -0.357 2.754 75 53 52
0.194 -0.360 2.777 75 51 48
0.197 -0.357 2.754 73 53 44
0.202 -0.357 2.754 72 47 44
0.208 -0.360 2.777 69 44 44
0.213 -0.360 2.777 67 42 39
0.216 -0.357 2.754 62 42 35
0.220 -0.357 2.754 58 40 33
0.225 -0.357 2.754 58 42 32
0.229 -0.357 2.754 59 40 39
0.234 -0.357 2.754 57 46 47
0.239 -0.357 2.754 55 49 44
0.243 -0.357 2.754 82 60 42
0.248 -0.357 2.754 110 71 45
0.255 -0.360 2.777 121 78 48
0.259 -0.360 2.777 132 63 36
0.264 -0.360 2.777 127 42 25
0.271 -0.363 2.799 122 37 20
0.413 -0.352 2.711 97 52 32
0.417 -0.352 2.711 91 53 33
0.422 -0.352 2.711 88 54 34
0.427 -0.352 2.711 85 55 35
0.431 -0.352 2.711 83 58 36
0.436 -0.352 2.711 82 55 36
0.440 -0.352 2.711 84 54 37
0.445 -0.352 2.711 86 53 35
0.446 -0.349 2.690 85 53 33
0.454 -0.352 2.711 85 53 33
0.459 -0.352 2.711 85 53 33
0.463 -0.352 2.711 85 52 35
0.468 -0.352 2.711 84 51 38
0.469 -0.349 2.690 84 50 34
0.477 -0.352 2.711 84 51 30
0.481 -0.352 2.711 84 52 25
0.486 -0.352 2.711 83 54 21
0.487 -0.349 2.690 83 52 23
0.491 -0.349 2.690 80 53 25
0.496 -0.349 2.690 78 50 23
0.500 -0.349 2.690 79 50 22
0.505 -0.349 2.690 81 50 24
0.505 -0.346 2.669 81 51 27
0.514 -0.349 2.690 81 49 26
0.518 -0.349 2.690 80 49 26
0.523 -0.349 2.690 79 48 32
0.527 -0.349 2.690 78 50 38
0.532 -0.349 2.690 77 49 30
0.536 -0.349 2.690 77 50 22
0.541 -0.349 2.690 77 49 25
0.546 -0.349 2.690 77 49 29
0.550 -0.349 2.690 78 46 31
0.555 -0.349 2.690 78 46 33
0.559 -0.349 2.690 78 46 29
0.564 -0.349 2.690 77 45 25
0.568 -0.349 2.690 77 45 24
0.573 -0.349 2.690 78 44 24
0.577 -0.349 2.690 80 44 19
0.582 -0.349 2.690 78 44 15
0.586 -0.349 2.690 77 45 17
0.591 -0.349 2.690 76 45 19
0.595 -0.349 2.690 75 45 21
0.600 -0.349 2.690 74 46 23
0.604 -0.349 2.690 74 46 22
0.609 -0.349 2.690 74 46 21
0.613 -0.349 2.690 74 45 21
0.618 -0.349 2.690 74 46 21
0.622 -0.349 2.690 74 45 26
0.627 -0.349 2.690 75 45 31
0.632 -0.349 2.690 76 44 27
0.636 -0.349 2.690 74 44 24
0.641 -0.349 2.690 72 44 24
0.645 -0.349 2.690 72 45 25
0.650 -0.349 2.690 72 44 20
0.654 -0.349 2.690 68 45 15
0.659 -0.349 2.690 65 45 14
0.663 -0.349 2.690 68 45 13
0.668 -0.349 2.690 71 43 17
0.667 -0.346 2.669 72 44 21
0.672 -0.346 2.669 73 44 21
0.676 -0.346 2.669 70 46 21
0.680 -0.346 2.669 68 43 22
0.685 -0.346 2.669 69 42 23
0.689 -0.346 2.669 70 41 22
0.694 -0.346 2.669 70 42 22
0.698 -0.346 2.669 70 41 24
0.703 -0.346 2.669 69 42 26
0.702 -0.344 2.649 69 41 18
0.707 -0.344 2.649 68 42 10
0.711 -0.344 2.649 67 43 13
0.716 -0.344 2.649 63 44 17
0.715 -0.341 2.629 60 42 23
-1.172 -0.263 2.051 15 9 29
-1.175 -0.264 2.063 15 9 26
-1.179 -0.266 2.076 28 13 23
-1.176 -0.266 2.076 41 20 15
-1.172 -0.266 2.076 52 24 8
-1.175 -0.267 2.088 63 26 4
-1.165 -0.266 2.076 63 18 1
-1.168 -0.267 2.088 64 14 1
-1.165 -0.267 2.088 61 6 1
-1.155 -0.266 2.076 59 2 1
-1.151 -0.266 2.076 58 1 1
-1.148 -0.266 2.076 58 3 2
-1.165 -0.271 2.114 54 2 3
-1.162 -0.271 2.114 50 3 3
-1.241 -0.290 2.266 39 2 3
-1.230 -0.288 2.252 29 3 2
-1.234 -0.290 2.266 17 2 2
-1.230 -0.290 2.266 6 3 4
-1.234 -0.292 2.281 14 4 6
-1.230 -0.292 2.281 23 6 8
-1.275 -0.309 2.409 28 11 2
-1.271 -0.309 2.409 27 9 2
-1.267 -0.309 2.409 26 10 3
-1.263 -0.309 2.409 27 10 4
-1.255 -0.309 2.409 29 10 5
-1.251 -0.309 2.409 29 9 6
-1.255 -0.311 2.426 28 7 8
-1.251 -0.311 2.426 27 7 8
-1.247 -0.311 2.426 30 6 8
-1.261 -0.315 2.460 34 6 8
-1.284 -0.322 2.514 32 7 9
-1.280 -0.322 2.514 30 9 13
-1.285 -0.324 2.532 29 9 17
-1.300 -0.329 2.570 29 12 13
-1.305 -0.332 2.589 29 9 9
-1.311 -0.334 2.609 30 9 6
-1.306 -0.334 2.609 29 8 4
-1.302 -0.334 2.609 29 9 3
-1.307 -0.337 2.629 28 8 3
-1.303 -0.337 2.629 27 9 2
-1.308 -0.339 2.649 32 10 2
-1.304 -0.339 2.649 37 12 11
-1.300 -0.339 2.649 39 13 21
-1.305 -0.342 2.669 41 14 22
-1.311 -0.345 2.690 68 40 23
-1.306 -0.345 2.690 95 66 38
-1.302 -0.345 2.690 95 65 54
-1.307 -0.347 2.711 96 64 46
-1.303 -0.347 2.711 97 64 39
-1.298 -0.347 2.711 99 65 39
-1.293 -0.347 2.711 97 65 39
-1.299 -0.350 2.733 95 67 41
-1.295 -0.350 2.733 96 65 44
-1.300 -0.353 2.754 97 63 47
-1.306 -0.356 2.777 96 64 50
-1.302 -0.356 2.777 96 66 52
-1.307 -0.358 2.799 96 64 54
-1.302 -0.358 2.799 97 63 48
-1.298 -0.358 2.799 97 64 43
-1.293 -0.358 2.799 98 66 46
-1.288 -0.358 2.799 98 63 49
-1.274 -0.356 2.777 99 62 47
-1.269 -0.356 2.777 98 64 46
-1.264 -0.356 2.777 98 66 47
-1.259 -0.356 2.777 98 64 49
-1.255 -0.356 2.777 98 62 49
-1.250 -0.356 2.777 98 62 49
-1.245 -0.356 2.777 99 63 47
-1.241 -0.356 2.777 98 63 45
-1.246 -0.358 2.799 97 65 42
-1.241 -0.358 2.799 97 64 39
-1.236 -0.358 2.799 97 65 39
-1.232 -0.358 2.799 95 64 39
-1.227 -0.358 2.799 94 66 33
-1.232 -0.361 2.822 94 63 28
-1.228 -0.361 2.822 95 63 36
-1.223 -0.361 2.822 95 62 44
-1.228 -0.364 2.845 96 63 46
-1.223 -0.364 2.845 95 62 49
-1.229 -0.367 2.869 95 62 49
-1.224 -0.367 2.869 94 65 49
-1.219 -0.367 2.869 93 68 41
-1.214 -0.367 2.869 87 65 34
-1.220 -0.371 2.893 81 60 34
-1.215 -0.371 2.893 72 35 35
-1.210 -0.371 2.893 63 30 29
-1.205 -0.371 2.893 58 32 23
-1.200 -0.371 2.893 54 34 19
-1.195 -0.371 2.893 56 32 16
-1.190 -0.371 2.893 58 33 12
-1.186 -0.371 2.893 57 31 9
-1.171 -0.367 2.869 56 32 18
-1.166 -0.367 2.869 57 31 28
-1.171 -0.371 2.893 58 30 23
-1.166 -0.371 2.893 57 30 19
-1.161 -0.371 2.893 56 30 20
-1.156 -0.371 2.893 56 33 21
-1.151 -0.371 2.893 57 34 20
-1.147 -0.371 2.893 56 31 19
-1.142 -0.371 2.893 56 30 19
-1.127 -0.367 2.869 55 31 20
-1.123 -0.367 2.869 54 32 19
-1.118 -0.367 2.869 55 30 19
-1.113 -0.367 2.869 57 30 20
-1.108 -0.367 2.869 59 29 21
-1.112 -0.371 2.893 61 29 21
-1.108 -0.371 2.893 59 30 21
-1.103 -0.371 2.893 57 30 26
-1.098 -0.371 2.893 57 31 31
-1.093 -0.371 2.893 58 34 26
-1.088 -0.371 2.893 62 30 22
-1.083 -0.371 2.893 67 30 20
-1.078 -0.371 2.893 62 31 18
-1.065 -0.367 2.869 57 35 18
-1.060 -0.367 2.869 59 33 18
-1.055 -0.367 2.869 62 34 18
-1.050 -0.367 2.869 62 34 19
-1.045 -0.367 2.869 62 36 21
-1.040 -0.367 2.869 62 33 23
-1.036 -0.367 2.869 62 30 23
-1.039 -0.371 2.893 62 33 23
